# .PCD v0.7 - Point Cloud Data file format
VERSION 0.7
FIELDS x y z
SIZE 4 4 4
TYPE F F F
COUNT 1 1 1
WIDTH 1528
HEIGHT 1
VIEWPOINT 0 0 0 1 0 0 0
POINTS 1528
DATA ascii
72.200577 10.194677 26.085575
72.226166 10.185886 26.060881
39.858147 10.930834 25.997849
75.142525 12.871242 25.995781
75.144295 12.903169 26.001915
75.597061 13.64261 26.000885
75.614182 13.697028 26.005959
73.487785 14.633727 25.991837
75.615646 14.670169 26.103083
75.147667 15.021836 26.019369
75.834175 15.634059 26.084423
73.364487 15.734044 26.09001
73.391777 15.727073 26.071123
75.846024 15.674559 26.083786
73.354111 15.764621 26.095215
75.891556 16.07328 26.104578
75.923386 16.069942 26.099031
75.890793 16.114292 26.101715
75.912392 16.109961 26.098103
75.603455 16.833344 26.00091
49.611984 21.098183 26.043623
71.67543 21.591591 26.019083
71.641571 21.633747 26.031584
71.666077 21.628139 26.019623
71.115349 23.323891 26.038687
71.088837 23.3512 26.042717
52.206322 23.534546 26.048466
52.221729 23.555439 26.041729
52.244602 23.584871 26.048279
70.977577 24.136602 26.042603
70.943398 24.175999 26.061537
70.978546 24.168982 26.043882
55.252689 26.783712 26.018379
55.262348 26.814539 26.008982
57.006233 29.774927 26.092682
57.050369 29.716682 26.100382
56.977451 29.810211 26.095434
56.690876 31.386446 26.088587
56.70042 31.385521 26.05715
56.69416 31.406155 26.103064
56.704906 31.415976 26.081354
76.162018 32.409355 26.094982
64.372871 32.781437 26.055042
71.20649 32.782738 26.104511
81.446907 35.13636 26.094408
81.432846 35.195793 26.094252
81.513496 35.496666 26.028992
81.546402 35.516685 26.016916
81.485855 35.541931 26.039757
72.442703 36.187546 26.035648
72.493271 36.164597 26.015789
70.291496 36.440266 25.998381
70.293442 36.464401 26.010824
69.092575 36.746048 26.029671
69.135338 36.736488 26.030401
-27.499163 -39.483101 26.186474
-27.457994 -39.49633 26.195213
-30.696865 -39.219086 26.106464
-28.998568 -39.149239 26.147388
-28.962397 -39.148548 26.126785
-17.973093 -39.013084 26.123432
-17.988384 -38.973862 26.130739
-21.970741 -38.770397 26.169363
-21.958332 -38.766411 26.173801
-22.263067 -38.678684 26.11006
-21.983604 -38.717094 26.179176
-21.944901 -38.742256 26.183588
-18.783163 -38.24612 26.132418
-18.734142 -38.259274 26.122541
-25.556486 -36.619789 26.192612
-25.794758 -36.049641 26.178514
-26.846184 -34.770287 26.172958
-29.578552 -34.04673 26.209715
-29.533747 -34.042934 26.206141
-29.561651 -34.036106 26.194258
-29.536501 -34.027981 26.183062
21.549625 -28.624897 26.197239
16.810587 -27.92874 26.120607
28.686489 -27.91246 26.150768
37.973488 -27.083076 26.124813
38.951401 -26.91954 26.219769
39.01392 -26.903782 26.217104
45.877731 -24.017233 26.214142
45.885593 -24.01189 26.211714
3.5608616 -22.198298 26.202423
3.5830743 -22.218557 26.192791
3.5547709 -22.191652 26.214346
2.6301551 -21.415609 26.201986
2.6606338 -21.446428 26.188061
52.754894 -19.145395 26.219183
-2.4164758 -17.205467 26.109522
-2.3975546 -17.22052 26.119059
-3.1976976 -15.584444 26.207861
-6.3507543 -12.306927 26.211121
-6.3551159 -12.299384 26.217396
-8.9810543 -8.9812975 26.167273
-8.9617672 -8.9931898 26.188187
-8.9854965 -8.9582348 26.18405
-9.7050476 -8.0678072 26.114664
-11.344153 -5.561974 26.167347
-11.340652 -5.512722 26.19566
-11.964982 -4.1401038 26.107491
-11.953555 -4.1706781 26.111917
-11.971491 -4.1196899 26.10548
-12.086057 -2.8020022 26.217916
65.777771 -2.3651667 26.214653
-12.36779 -1.2133052 26.126429
66.468018 -0.92861295 26.214226
66.473274 -0.93060511 26.202291
-12.426587 0.4160901 26.151621
-12.399392 0.39806101 26.173847
25.151274 1.134668 26.209513
25.151712 1.1636779 26.178968
25.022339 1.3674606 26.116529
25.012026 1.3879457 26.114985
24.190109 1.5415357 26.200806
68.622604 2.5145166 26.156742
68.643242 2.5653594 26.167534
68.665352 2.6082165 26.167585
68.693665 2.6696248 26.174126
-12.95312 2.8496752 26.184761
-12.962133 2.8807945 26.188232
73.57048 3.3028266 26.137108
73.591377 3.3503041 26.148714
74.028603 4.040525 26.108828
-12.22256 4.2357779 26.1297
-12.178364 4.2162061 26.13838
-12.211556 4.2672811 26.115044
-11.702196 4.4724803 26.211687
74.112671 4.4782104 26.121824
-11.734118 4.5156107 26.17741
-11.690973 4.5051689 26.202137
37.352905 4.5613427 26.124952
37.381054 4.5725584 26.123533
74.056068 4.526505 26.197206
74.081223 4.5308547 26.166008
18.728424 5.7430644 26.189192
18.704224 5.7684278 26.184065
17.576725 6.6478815 26.134045
17.623194 6.6472964 26.11771
17.589064 6.6713886 26.119522
17.59874 6.6817613 26.111603
73.298012 6.8551412 26.211838
71.055237 6.954782 26.215931
71.09491 6.9707212 26.214249
13.32308 7.9136724 26.127537
13.348019 7.8887229 26.130938
13.317508 7.9478989 26.112421
-7.2771921 8.9587507 26.207561
-7.2736874 8.9826803 26.197563
-7.2368813 8.9837561 26.209713
6.0190749 9.69205 26.207821
-2.4280534 9.9587994 26.138193
-2.3843272 9.9525843 26.139925
75.584396 14.674503 26.108772
75.878555 16.078182 26.106585
72.78302 18.26232 26.204208
72.824425 18.261108 26.169266
72.828011 18.296358 26.153181
47.309456 18.872761 26.213593
72.282578 19.411873 26.121838
72.272247 19.446087 26.115936
71.681824 20.303637 26.218859
53.780689 25.36801 26.188816
70.940948 26.44466 26.187082
68.455719 26.549902 26.201426
70.933586 26.485378 26.1611
70.967552 26.476265 26.145981
68.446243 26.579927 26.215202
57.21468 29.521753 26.207041
57.171368 29.562103 26.216169
57.013298 29.756323 26.120636
57.054863 29.707401 26.110821
56.972015 29.804016 26.132973
56.678249 31.380392 26.121002
60.369328 32.254601 26.206642
60.406773 32.259472 26.170416
74.403053 32.421654 26.188942
74.429604 32.429043 26.203539
76.126434 32.422573 26.157629
76.159195 32.420902 26.133621
74.434807 32.433842 26.212442
76.188873 32.441368 26.182329
71.125107 32.744316 26.165354
71.229156 32.746605 26.124805
64.375763 32.779308 26.113197
71.099312 32.802494 26.128702
71.189606 32.781906 26.111464
78.806664 33.086842 26.211662
70.056908 33.740799 26.200806
81.408501 35.143879 26.113026
81.426125 35.130177 26.105745
78.160713 36.443161 26.19278
71.573128 36.504684 26.189789
67.195763 37.258049 26.192446
67.143974 37.298794 26.197296
67.182228 37.302513 26.186918
67.602646 37.345093 26.118366
67.632088 37.368618 26.117126
67.580124 37.395321 26.1206
67.653236 37.390732 26.116333
68.354904 37.58379 26.203415
68.351013 37.617962 26.215242
-26.28019 -39.67598 26.330694
-26.270859 -39.66782 26.312775
-26.2199 -39.667088 26.333725
-27.467655 -39.495995 26.231205
-29.725214 -39.247852 26.272209
-19.78697 -38.41256 26.334797
-19.784887 -38.405373 26.331968
-19.776133 -38.402756 26.331812
-25.323729 -37.289696 26.326099
-25.347025 -37.206982 26.31027
-25.544863 -36.611778 26.263937
-25.521017 -36.664005 26.288654
-25.55809 -36.54995 26.308416
-25.78174 -36.044197 26.243477
-25.74931 -36.102558 26.268538
-25.801323 -35.980007 26.283413
-26.864988 -34.775124 26.23826
-29.558037 -34.057335 26.227011
-29.524435 -34.056507 26.227434
21.547068 -28.627863 26.232574
29.185015 -27.832428 26.276928
16.408901 -27.80792 26.291658
16.45553 -27.819118 26.265594
29.180237 -27.828489 26.316442
29.213873 -27.82786 26.311428
38.958931 -26.914768 26.225597
38.967304 -26.892675 26.26803
38.993374 -26.898401 26.240591
41.346649 -26.243973 26.328054
41.387661 -26.216427 26.327082
41.40226 -26.206572 26.327024
45.867897 -24.019566 26.248035
45.90152 -23.993771 26.258701
3.5844905 -22.215019 26.233208
3.5481188 -22.184858 26.223379
2.6722593 -21.444813 26.223286
52.750675 -19.144814 26.248974
-3.1921413 -15.575282 26.240749
57.675579 -13.691973 26.333889
-6.3325415 -12.312689 26.230797
-6.3152189 -12.308571 26.266621
-6.3497772 -12.28585 26.250301
-6.3196983 -12.30125 26.272305
59.7071 -11.865473 26.247112
59.722385 -11.837946 26.277884
61.234699 -10.028887 26.270971
-8.2062073 -9.9032841 26.305367
61.263134 -9.987566 26.288523
-8.2216711 -9.874547 26.313307
61.867783 -9.1428986 26.279802
61.886139 -9.1078424 26.28307
61.90612 -9.0565519 26.306633
-8.9669113 -8.9480715 26.227171
-9.3290453 -8.3242273 26.318567
-9.3031492 -8.3508472 26.32724
-10.588617 -7.0660038 26.257597
-10.559082 -7.0546393 26.293274
65.312332 -3.2975032 26.32548
65.348251 -3.2876623 26.28397
-12.048025 -2.7838082 26.260515
-12.055632 -2.7476151 26.259581
65.753151 -2.3711023 26.250145
66.432297 -0.92388701 26.285648
66.455109 -0.90174854 26.267225
66.479294 -0.87185889 26.254606
27.246246 0.39485502 26.289022
27.280779 0.39777845 26.2838
24.943085 1.0317123 26.330273
24.935701 1.0645751 26.314425
24.965536 1.039232 26.319969
25.138584 1.1131731 26.235241
25.185446 1.1095903 26.227274
24.169598 1.5230006 26.220783
22.949167 2.2393124 26.316902
68.668488 2.6746316 26.227257
21.661537 3.1385529 26.32114
-11.706689 4.4470143 26.2211
73.253281 6.830544 26.242271
73.290535 6.825345 26.229137
37.244247 7.3165975 26.320436
37.286575 7.3206153 26.307083
37.280815 7.3717909 26.309866
37.323456 7.692709 26.297749
37.328812 7.7524738 26.29756
37.387482 7.7649708 26.28125
71.24955 8.7186775 26.311028
71.245125 8.7464781 26.324253
-7.2823081 8.9235916 26.222263
8.263833 9.3740234 26.290237
8.300086 9.3521347 26.303858
2.5515728 9.6583853 26.334536
5.9635277 9.6554022 26.257591
6.0078988 9.6538086 26.258924
2.5299878 9.6654348 26.326881
2.5524504 9.6677494 26.325399
6.0046768 9.6706257 26.236593
72.028175 10.487329 26.322453
39.492023 10.870083 26.323753
43.746368 15.687768 26.302074
72.758537 18.136179 26.248783
72.798172 18.162113 26.222191
72.729607 18.180056 26.25675
47.28611 18.859173 26.251484
47.308968 18.878227 26.245304
71.631943 20.305882 26.248852
71.658813 20.304823 26.232672
70.563377 24.807756 26.260937
70.55751 24.850946 26.275972
53.784645 25.376272 26.223536
68.446838 26.541977 26.285723
68.444633 26.573639 26.240074
57.202473 29.52249 26.266298
57.152611 29.577229 26.232634
57.167076 29.563745 26.229599
74.464409 32.456936 26.255507
65.652168 32.593277 26.329552
65.669891 32.596954 26.323986
72.208054 32.596066 26.271038
72.259323 32.59523 26.290991
67.029816 32.88451 26.290512
67.055031 32.884834 26.307896
67.031326 32.892071 26.258575
67.068184 32.890564 26.292679
78.749245 33.086685 26.258701
78.787361 33.094276 26.247793
70.093636 33.68808 26.239105
70.028442 33.736713 26.250738
70.061592 33.713593 26.241989
80.003227 36.271481 26.328175
78.167648 36.429451 26.231159
71.523804 36.548595 26.220903
71.567924 36.542557 26.22781
71.498352 36.574581 26.240437
68.396027 37.608192 26.220446
66.912781 38.864319 26.276405
66.968246 38.843288 26.288198
66.897835 38.892445 26.279285
66.960022 38.879375 26.295349
-26.274652 -39.685406 26.35874
-26.249163 -39.673229 26.337191
-20.505789 -38.578148 26.349646
-19.799181 -38.443485 26.346615
-19.765661 -38.435604 26.346937
-25.318653 -37.290077 26.348372
-25.32671 -37.224064 26.382832
-28.114737 -34.320305 26.412214
21.617323 -28.626266 26.409756
21.663813 -28.624464 26.385424
16.408384 -27.800293 26.335514
30.186897 -27.720129 26.417812
30.225943 -27.712717 26.434858
41.345642 -26.239431 26.357065
41.385254 -26.212877 26.355808
9.6084232 -25.420668 26.434591
9.5775251 -25.409016 26.430002
53.83186 -18.177059 26.386116
53.873142 -18.148567 26.413078
55.947792 -15.732146 26.3941
57.664524 -13.698655 26.370714
57.687546 -13.668563 26.374334
-8.1808014 -9.9043646 26.347654
-8.2013073 -9.880229 26.341421
61.8979 -9.0474272 26.342907
61.957592 -8.9012041 26.416086
61.97538 -8.8509884 26.437733
61.985634 -8.828393 26.44136
-9.318224 -8.2976856 26.365047
-9.2971354 -8.3371019 26.351929
66.332985 -0.98654509 26.438353
-12.242779 0.77563661 26.408043
-12.233711 0.80772662 26.423119
24.891676 1.0431529 26.338263
22.94352 2.2116516 26.344782
21.646692 3.1209323 26.345131
68.946777 3.1883647 26.393051
68.977852 3.249717 26.426823
69.003227 3.2962406 26.43911
36.22039 4.9262238 26.419014
36.241467 4.9207911 26.416317
70.132057 4.8407803 26.44553
36.20549 4.9942312 26.437132
36.244911 4.9654007 26.42737
36.565094 5.0525913 26.41304
36.594563 5.041296 26.406605
36.555214 5.0941453 26.421282
36.591595 5.0931473 26.415422
36.536976 5.254951 26.446163
36.562988 5.3042903 26.446726
36.572113 5.3264456 26.447443
15.064119 6.8956928 26.429146
15.076684 6.8909011 26.439913
15.05162 6.9119067 26.406904
15.10336 6.9132562 26.430014
36.848831 7.0035205 26.437017
36.847187 7.0413322 26.439209
-8.5147753 7.1917496 26.429276
-8.485137 7.1908064 26.42889
37.126873 7.4276071 26.357433
37.162014 7.4488602 26.346203
37.136433 7.5087891 26.353188
71.224556 8.7281771 26.346237
71.211075 8.7640858 26.373468
9.6253061 8.9648027 26.446997
9.5773726 8.9875536 26.441837
8.1226978 9.3075075 26.440693
-6.0234475 9.4847641 26.369209
1.8122531 9.6147995 26.418919
1.847266 9.6097088 26.416845
2.5612776 9.6430483 26.34989
-4.1776805 9.838048 26.361736
-4.1310363 9.8397198 26.35169
71.98175 10.487459 26.353521
72.00872 10.506669 26.344048
39.473804 10.885962 26.357946
39.498352 10.926167 26.363125
40.615795 12.488622 26.43618
43.738785 15.697739 26.340149
45.250107 17.126436 26.392473
45.273369 17.152866 26.406376
72.540375 18.0271 26.403532
72.569427 18.03817 26.385529
72.533188 18.063038 26.40519
71.114067 20.853022 26.428501
53.116108 24.776611 26.425886
53.146805 24.808434 26.423603
70.47583 26.071157 26.437607
70.515511 26.070684 26.426147
70.454819 26.106674 26.444653
68.436066 26.531567 26.389509
55.055893 27.063702 26.436304
55.089218 27.084829 26.411999
68.879219 27.813665 26.355095
68.898262 27.850628 26.377317
63.116825 32.378345 26.42893
63.148235 32.390079 26.440836
65.662025 32.532627 26.374846
65.691353 32.539005 26.365404
65.645546 32.560665 26.35574
65.699142 32.554043 26.352598
64.451889 32.73745 26.41124
67.035118 32.865616 26.377127
67.056602 32.876881 26.343882
77.614426 32.811138 26.424643
77.652016 32.821991 26.436449
80.554352 35.179817 26.449371
80.581924 35.218632 26.440695
80.038086 36.224155 26.372368
79.988022 36.241436 26.35766
70.92379 36.885944 26.397987
70.902626 36.929802 26.430937
66.784248 37.117676 26.426649
66.824242 37.133995 26.39077
66.764481 37.161236 26.408495
66.817497 37.148636 26.384733
68.912758 37.590569 26.351286
68.935173 37.638149 26.383173
65.417244 40.011627 26.367079
65.418083 40.075264 26.383375
65.465149 40.065735 26.376179
-25.313633 -37.186157 26.481739
-28.134459 -34.328323 26.455873
22.115999 -28.60532 26.509283
30.188322 -27.71987 26.454422
30.221972 -27.71348 26.456148
31.79228 -27.522734 26.531816
13.732156 -26.62311 26.552065
11.026149 -25.929897 26.534807
11.057691 -25.945704 26.524221
9.6178617 -25.418381 26.459787
9.5925417 -25.405949 26.467749
8.5615692 -24.889093 26.546289
44.602123 -24.658192 26.497402
44.636269 -24.640072 26.491375
47.913929 -22.741133 26.552301
1.4926907 -20.486607 26.541281
1.5210153 -20.512787 26.523705
53.877502 -18.140581 26.458628
61.727879 -9.1654358 26.559332
61.945313 -8.8970718 26.455057
62.010368 -8.765564 26.475506
62.038849 -8.7166433 26.483805
-10.883673 -5.6918821 26.55862
66.30674 -1.0357761 26.470369
66.326736 -0.97895604 26.471655
66.345505 -0.919572 26.480869
31.937864 0.55322433 26.504885
31.995657 0.54706943 26.524036
31.997826 0.58176196 26.485155
23.111219 1.795693 26.49264
23.143848 1.7750586 26.49254
71.515366 2.1788716 26.556953
71.561409 2.1812422 26.545412
71.524139 2.1932445 26.525772
71.561363 2.1927447 26.521471
-12.542697 3.0959501 26.495138
-12.552867 3.1343863 26.477798
-12.520753 3.147444 26.482431
68.932144 3.1769373 26.451254
-11.55877 3.8933258 26.503328
-11.547643 3.9257932 26.49889
35.479683 4.3609681 26.55143
35.496426 4.3839312 26.541887
70.081467 4.8262887 26.484163
70.116043 4.8610001 26.493198
36.487682 5.2786932 26.457632
18.353687 5.360806 26.53974
36.452679 5.2959852 26.465824
36.512035 5.3068571 26.456234
-10.120763 6.0726056 26.48951
-10.079142 6.0614386 26.530529
-8.772191 6.3184924 26.524338
16.655113 6.2298994 26.561871
16.680815 6.2195482 26.560287
-8.7691755 6.3480115 26.518703
-8.7359123 6.3780322 26.52545
15.089441 6.8791471 26.457787
36.795708 7.0053444 26.453613
71.857964 7.0110078 26.520355
71.886299 7.0054593 26.500849
36.766903 7.0194793 26.463194
36.812042 7.0634408 26.451115
71.849861 7.0433712 26.512434
71.876137 7.0402007 26.493494
9.603446 8.9512949 26.480707
9.5757313 8.9761171 26.460104
8.1206493 9.2821741 26.475626
6.7329054 9.3724976 26.560776
-0.27805728 9.5870504 26.509705
38.242989 9.640913 26.548714
38.263268 9.6611881 26.546116
71.575356 10.332598 26.551407
71.5839 10.363504 26.5597
40.589085 12.490222 26.47506
40.61282 12.506805 26.463184
41.500397 13.510975 26.544182
41.534939 13.543802 26.541397
71.985786 18.728693 26.53393
72.021721 18.688725 26.508587
71.726883 19.300447 26.551683
50.514828 21.72345 26.559898
50.548531 21.752314 26.553711
70.489647 22.385086 26.536407
70.532745 22.350266 26.511677
70.2155 24.454168 26.478491
53.121658 24.785145 26.468071
53.133713 24.797653 26.467371
70.078163 24.829119 26.529049
70.025261 24.841471 26.555458
70.065025 24.858898 26.537706
68.428772 26.51973 26.469248
55.04961 27.081207 26.461914
63.114952 32.382969 26.471369
63.158546 32.396263 26.463675
70.077744 32.51561 26.496401
73.936691 32.634148 26.550032
74.006973 32.622551 26.531231
74.061752 32.634361 26.551765
75.199486 32.571514 26.513409
75.233795 32.57127 26.516109
64.448135 32.717907 26.46851
77.603462 32.817142 26.464626
77.646614 32.825859 26.460443
80.546593 35.226574 26.458731
71.745369 36.748055 26.54184
71.775551 36.744076 26.552633
70.896751 36.956978 26.454004
66.777321 37.07869 26.457998
67.692551 38.692196 26.502064
67.756332 38.729858 26.547153
66.109192 40.327805 26.557348
66.140366 40.311359 26.558008
64.705238 40.592617 26.554041
64.705498 40.647774 26.551891
64.756462 40.629066 26.542164
-30.945335 -39.127121 26.644009
-30.915308 -39.139824 26.622705
-25.983299 -35.446751 26.669983
-31.281738 -35.356289 26.64352
-31.270227 -35.345825 26.659311
-29.841759 -34.38559 26.676544
-29.842123 -34.377132 26.665749
22.757921 -28.626226 26.662212
22.780153 -28.62644 26.656261
33.115345 -27.39048 26.595768
33.154808 -27.386086 26.617989
36.198517 -27.179264 26.653904
36.229206 -27.174997 26.669685
14.520118 -26.796265 26.646175
14.469978 -26.79266 26.665964
14.497551 -26.794256 26.662264
13.727142 -26.610168 26.589918
40.637947 -26.596939 26.611565
11.016421 -25.9203 26.569084
8.5650053 -24.886465 26.574135
47.904358 -22.73208 26.595726
3.6596348 -22.209675 26.631907
3.6329749 -22.190256 26.632555
50.556374 -20.87508 26.65687
0.44654146 -19.503885 26.669397
0.47496688 -19.53068 26.669338
-2.9761841 -16.567713 26.639709
-3.0012128 -16.530998 26.655581
-2.9841144 -16.552975 26.652142
-6.6076832 -11.772552 26.670437
61.634869 -9.2153473 26.675373
61.659706 -9.2122774 26.623381
61.699394 -9.1676741 26.616192
-8.884491 -8.6293879 26.641808
-8.9074917 -8.5813332 26.650341
-10.861527 -5.6723013 26.584324
66.236427 -1.1869578 26.603355
66.257332 -1.1619803 26.619711
66.269623 -1.1283371 26.602562
26.832577 -0.16976182 26.676838
27.053684 -0.12184598 26.601269
27.021814 -0.084234692 26.586334
27.044493 -0.080329388 26.584917
25.378649 0.42631337 26.620121
25.426966 0.40561566 26.619516
25.393 0.47216436 26.592972
32.020836 0.51054555 26.570753
67.422798 0.86467737 26.654737
24.043299 0.97922766 26.670673
71.502388 2.1748371 26.567215
-12.478063 2.8458474 26.588812
-12.481067 2.8866093 26.576437
70.24646 3.4993715 26.673866
70.260056 3.6122141 26.667728
70.311043 4.0069594 26.632818
70.309967 4.072897 26.651615
70.313789 4.1684418 26.647707
35.452984 4.3649292 26.567665
35.446472 4.4057603 26.572622
73.414886 4.8846951 26.64987
18.320202 5.3365541 26.570862
70.155334 5.4104905 26.679794
-8.6755905 6.0538721 26.678598
16.619093 6.1930118 26.588511
16.677773 6.2082653 26.566418
15.913387 6.2596407 26.670628
16.630802 6.2208123 26.572338
13.373745 7.2381263 26.642763
13.322485 7.2732143 26.636444
13.354868 7.2716208 26.624186
11.660283 8.1042347 26.607685
-5.7154999 9.3970222 26.674593
6.7444291 9.3481388 26.594421
6.7927847 9.3582268 26.575354
-3.3953207 9.4854965 26.603535
-0.24591024 9.4991941 26.629864
-0.20733994 9.5049353 26.62261
4.3116069 9.4461327 26.67116
4.3706341 9.4412346 26.679361
71.011368 9.5328054 26.625814
70.997574 9.5712233 26.657272
38.240982 9.6622143 26.575333
71.556213 10.342134 26.570091
71.564644 10.361956 26.573223
41.506371 13.5414 26.580448
41.525047 13.55048 26.566055
72.637833 13.563989 26.573376
72.619675 13.594718 26.57637
72.50399 13.960114 26.678177
47.034431 18.711531 26.61401
47.065128 18.733707 26.630098
47.088734 18.748739 26.609613
71.700348 19.287161 26.579815
71.675392 19.327217 26.587072
70.587242 21.465967 26.626604
70.622536 21.467554 26.607119
50.548531 21.728924 26.602411
50.561588 21.746622 26.586466
55.871948 27.99889 26.66857
55.913242 28.01609 26.663616
56.799103 28.543894 26.643391
56.823257 28.554359 26.634249
80.090324 34.486034 26.635277
80.096069 34.529221 26.646263
74.483292 36.262249 26.667591
74.531532 36.245502 26.65579
71.731926 36.775185 26.574104
71.78923 36.752548 26.572544
66.501022 37.131958 26.644817
66.464012 37.188114 26.620369
66.497894 37.170921 26.605785
68.214378 38.506401 26.588861
68.182899 38.613319 26.650019
68.219765 38.557125 26.629034
67.795174 38.746601 26.571577
66.431694 40.229996 26.636051
66.482445 40.249592 26.677895
66.109154 40.346901 26.570175
66.157043 40.330685 26.577276
66.420578 40.278126 26.660389
66.088852 40.367012 26.576077
-26.006491 -35.433353 26.731079
-25.960016 -35.460361 26.728731
-31.282518 -35.384502 26.70396
-31.255068 -35.341198 26.700588
-29.841322 -34.411205 26.709015
22.750994 -28.626541 26.693672
22.796343 -28.627079 26.689436
24.149353 -28.605869 26.785799
24.178049 -28.601978 26.768127
36.187038 -27.182425 26.68774
36.239727 -27.174267 26.69356
14.487144 -26.791142 26.709877
14.49781 -26.792097 26.702188
43.922943 -24.935921 26.780359
43.94297 -24.927528 26.776829
6.4247007 -23.936499 26.736834
6.4532495 -23.949963 26.752249
47.920486 -22.703768 26.748314
3.6480708 -22.191368 26.682518
50.56189 -20.869286 26.683773
0.45640844 -19.508158 26.708307
0.47008279 -19.52216 26.699675
-0.99569756 -18.223827 26.792313
-2.9983451 -16.518967 26.692503
-2.9891701 -16.532122 26.687403
-6.5962181 -11.752992 26.71648
-6.6294622 -11.719784 26.721905
61.662388 -9.1624403 26.703009
-10.995542 -4.8500838 26.736483
-10.997358 -4.8110957 26.750719
-11.51799 -3.105031 26.770281
-11.523917 -3.0633814 26.772728
28.384287 -0.49287003 26.779743
28.417597 -0.49271882 26.781488
26.785751 -0.20756376 26.707466
26.824816 -0.20123529 26.696169
67.412048 0.87245846 26.691742
24.017096 0.95430833 26.701036
24.061096 0.93437356 26.694479
-11.452607 3.2021811 26.792433
-11.419552 3.2436166 26.789171
70.235748 3.4401083 26.691538
70.23555 3.4970398 26.717062
70.248833 3.5995054 26.707708
35.174408 4.0149179 26.789356
35.192955 3.9940529 26.779116
70.295647 4.020793 26.724514
35.175446 4.0594263 26.780994
35.190079 4.0302916 26.775076
70.297523 4.0731606 26.723677
70.306931 4.1544313 26.684704
70.129608 5.3792548 26.709869
70.118896 5.438899 26.722631
70.154305 5.4219379 26.681053
35.304245 5.6257176 26.776003
35.314476 5.6161294 26.769358
35.291065 5.6769443 26.789938
35.319149 5.6909089 26.777267
-8.6485586 6.0729327 26.707684
-8.6152334 6.0741549 26.748425
15.710898 6.0916224 26.785881
-8.6385221 6.1077981 26.712376
-8.6234121 6.0959225 26.733578
15.678185 6.1296043 26.775732
15.921847 6.2042084 26.686798
15.862964 6.2273431 26.687836
15.899318 6.2201104 26.684986
70.226028 6.3125448 26.770966
70.220024 6.3331704 26.784979
36.547585 7.7388582 26.770376
-6.8449278 8.0651894 26.787073
-2.3625529 9.264782 26.779509
-5.7139735 9.380209 26.704836
4.3261886 9.4144135 26.705408
4.3707399 9.4291077 26.692175
4.3468809 9.4345007 26.685255
70.974907 9.5812082 26.689365
72.464569 13.909344 26.694756
72.446907 13.960999 26.705706
72.481285 13.94341 26.688316
72.386642 14.472262 26.74906
72.398491 14.510951 26.739052
52.432571 23.801676 26.728785
52.435791 23.807325 26.718508
52.462723 23.842882 26.733507
69.643829 24.712603 26.778639
69.641663 24.754246 26.772457
69.766472 24.886711 26.706341
68.712524 27.705387 26.769201
68.737854 27.740318 26.778082
55.864113 28.018225 26.700861
55.893459 28.01989 26.682688
70.414192 29.398993 26.783476
56.439888 31.229473 26.780827
71.451759 31.484287 26.734867
71.410896 31.519987 26.734224
71.428642 31.513866 26.730747
65.050911 32.189423 26.757833
65.091949 32.199249 26.746153
65.078026 32.208809 26.726252
65.097931 32.213718 26.720327
69.556465 32.480255 26.696005
69.593353 32.471264 26.691099
64.139801 32.598774 26.727659
64.177452 32.599174 26.725796
73.135544 32.728706 26.703121
73.181343 32.744862 26.727076
69.086853 34.369911 26.774897
69.06916 34.391418 26.750217
74.496193 36.260468 26.697315
66.261848 37.246685 26.785675
66.211937 37.31403 26.761467
66.244095 37.26606 26.783554
64.835052 41.827213 26.76886
64.876328 41.811275 26.773853
64.871513 41.860775 26.793478
-31.256958 -35.451477 26.906466
25.29443 -28.352251 26.859562
25.331942 -28.346203 26.874105
15.647232 -27.486864 26.842361
15.624537 -27.461395 26.896404
15.655409 -27.474874 26.884146
35.98357 -27.188103 26.893456
36.025352 -27.185444 26.894188
14.053991 -26.651981 26.88386
43.917065 -24.937006 26.808172
43.949535 -24.922874 26.812534
47.921547 -22.706173 26.798521
52.209335 -19.524029 26.902802
52.218452 -19.517357 26.901741
53.243874 -18.593042 26.893156
53.27969 -18.557503 26.896673
-0.98987019 -18.213993 26.834084
61.092064 -9.7845192 26.896847
61.375401 -9.4686594 26.850439
61.404484 -9.4112902 26.854345
61.417873 -9.3879509 26.853533
-8.464489 -8.8694286 26.901703
-8.4852371 -8.8462687 26.896744
-9.6725788 -7.6161251 26.863619
-9.6557169 -7.6250997 26.875273
-9.6803951 -7.5679474 26.883276
-11.501569 -3.0314167 26.800327
-11.487402 -3.0440624 26.811407
27.870888 -0.58777428 26.883795
27.874544 -0.54462141 26.849169
28.398722 -0.52762669 26.809441
28.408981 -0.52504683 26.807871
-11.788998 0.61412746 26.824972
-12.042437 1.2137482 26.886404
-11.41697 3.2006748 26.806395
35.035355 3.2183676 26.879894
-11.411795 3.2218919 26.800308
35.064117 3.2264776 26.880634
35.099514 3.2368205 26.877285
70.210396 3.532851 26.834602
70.22361 3.5717738 26.797882
35.162064 4.0213432 26.797451
35.142071 4.0557814 26.806452
34.976357 4.1706924 26.90729
18.155701 4.9268603 26.898071
18.182556 4.9248695 26.899681
18.208012 4.9524021 26.884476
16.536564 5.7102356 26.838747
16.5667 5.6754665 26.848139
35.258209 5.6870031 26.808411
70.201065 6.3228498 26.802141
70.185677 6.3687325 26.835524
-7.7129259 6.5063047 26.846468
-7.6751461 6.5138245 26.896858
71.57872 6.5387807 26.892361
71.58474 6.5768781 26.861961
36.533649 7.7775307 26.814957
-6.8265228 8.0380106 26.815329
-6.8188806 8.0638828 26.806093
2.6832161 9.1183186 26.899805
-2.3551044 9.2466726 26.806395
44.3214 16.37566 26.902868
70.374779 20.169455 26.909258
70.422829 20.177301 26.889095
69.446098 24.833614 26.888409
69.486382 24.829102 26.858736
69.442833 24.86537 26.893703
69.472404 24.861368 26.871859
68.744148 27.752007 26.795416
55.808796 28.078964 26.882828
70.357109 29.386066 26.846594
70.407669 29.412577 26.825998
56.429203 31.232458 26.816835
56.439953 31.285315 26.814621
58.151958 31.681444 26.895643
58.209309 31.680532 26.889212
70.930649 31.691004 26.867344
70.961418 31.699564 26.839014
57.762573 31.785109 26.896751
70.135376 31.894779 26.895624
70.15937 31.886757 26.902142
68.28244 32.578503 26.872328
68.314995 32.565941 26.885719
69.073776 34.376884 26.803068
69.056671 34.391571 26.810915
71.693863 36.901649 26.829187
71.633598 36.923599 26.823769
71.669991 36.923656 26.857161
66.242805 37.258564 26.796059
66.188522 37.298012 26.817698
66.240997 37.2603 26.796181
70.132996 37.708366 26.901348
65.189529 41.730553 26.857559
65.184929 41.777542 26.876368
65.220772 41.791836 26.898117
64.88871 41.873192 26.80364
64.501305 42.234573 26.848656
64.535431 42.243927 26.861296
-25.923536 -39.852009 26.953487
-29.743553 -39.33342 26.995329
-29.713663 -39.32642 26.975269
-31.226765 -35.459404 26.964802
-27.932852 -34.673248 27.017391
25.335606 -28.347908 26.914019
27.782148 -28.007652 26.972122
31.607689 -27.531019 26.953148
31.636349 -27.528555 26.960068
15.629771 -27.457361 26.912622
15.664327 -27.467691 26.912678
36.013245 -27.180201 26.926477
38.607235 -26.934307 26.960787
38.647491 -26.92503 26.942211
14.013355 -26.632256 26.934557
14.063312 -26.646114 26.925142
14.14684 -26.655607 27.022736
8.9674931 -25.028961 26.963522
9.0079107 -25.043537 26.990715
45.638531 -23.969753 26.929073
45.681824 -23.942644 26.941557
3.625977 -22.085487 27.001917
3.6035044 -22.068512 27.004349
50.245037 -21.076857 27.019537
50.258759 -21.067255 27.023083
52.200176 -19.52383 26.948776
52.228409 -19.501974 26.953278
-0.31745169 -18.716209 27.017757
53.280544 -18.547106 26.933319
53.928329 -17.918217 26.926109
53.972496 -17.880203 26.948706
54.048489 -17.796619 27.006897
61.063015 -9.7848911 26.960413
61.075176 -9.7852306 26.932831
61.10038 -9.7531881 26.939793
-8.4513226 -8.866251 26.918659
-8.4588728 -8.8412342 26.929668
-10.025166 -6.5849915 26.974051
-9.9882555 -6.5764627 26.997355
-10.008154 -6.5201044 27.011539
-9.998744 -6.531601 27.011482
-10.360067 -5.8769689 26.953794
-10.34239 -5.8683825 26.97271
-10.368419 -5.8260589 26.965509
-10.336824 -5.8271112 26.993155
25.663071 -0.23540451 27.008747
25.61688 -0.21638852 27.010921
25.659376 -0.22283375 26.998495
-11.471298 0.25442588 27.014721
-12.040896 1.225507 26.929699
-12.069797 1.2712302 26.958591
68.653107 2.4405847 27.015917
68.670181 2.478673 26.990791
70.172234 3.5358491 26.976755
70.175537 3.5899684 27.001841
34.952053 4.1262455 26.9307
34.972664 4.1189003 26.917545
34.928589 4.1890392 26.93758
34.964745 4.1728749 26.914993
18.157957 4.889122 26.919571
18.179661 4.8951502 26.916529
-9.9342833 5.2326713 26.927656
-9.8796873 5.2530122 26.921574
69.952034 5.6031618 26.968706
69.942558 5.6399307 26.961655
70.66658 5.7054348 27.002615
70.694702 5.7508616 26.945572
-7.6619248 6.5061269 26.960245
-7.5158372 6.5989022 27.002352
11.895938 7.8560419 26.966831
-1.2653995 8.9684334 27.019711
-1.2456374 8.9670162 27.024376
-1.280611 8.9925346 26.994303
-1.2383929 9.0076675 26.988028
2.6885245 9.0770702 26.939245
8.146822 9.0170717 26.951963
8.1783266 9.0093374 26.965645
2.6806333 9.0937777 26.923252
38.280537 10.03193 26.991344
38.305332 10.052594 26.975891
71.057564 10.442248 26.955168
71.073036 10.455548 26.94488
71.047615 10.484557 26.972458
71.087799 10.485903 26.938753
42.74744 14.936963 27.005732
71.974823 14.930391 27.019613
42.770874 14.957268 27.019899
71.970322 14.954244 27.021729
44.320313 16.386274 26.949917
71.527504 18.153866 26.943783
71.555374 18.151037 26.930038
71.521584 18.175951 26.941463
71.548485 18.174234 26.92795
52.161648 23.289831 26.961304
69.34166 23.883501 27.006889
69.380211 23.889097 26.974257
69.380447 23.930477 26.967428
69.416763 24.854908 26.911674
55.768795 28.072706 26.924753
55.807102 28.093697 26.915373
58.176121 31.708689 26.927738
58.192982 31.706808 26.923813
70.920364 31.652477 26.912455
57.796227 31.789448 26.966059
57.851341 31.769947 26.966829
70.130859 31.851797 26.927559
70.153198 31.851982 26.927921
70.118462 31.863459 26.918591
70.170868 31.863771 26.919529
61.678871 32.114685 26.984394
62.674141 32.401604 26.933121
62.717758 32.410946 26.947229
78.010674 33.400639 27.008965
78.819199 34.504951 27.024643
78.861961 35.529415 27.023611
78.864326 35.551434 27.017811
73.903458 36.349209 27.002737
73.951981 36.340881 26.99052
66.138763 37.257877 26.978619
66.096451 37.285011 27.012537
70.138527 37.712791 26.915911
70.162918 37.708706 26.933071
70.114044 37.735317 26.935385
70.160118 37.72187 26.956413
68.707191 38.703838 27.005764
64.617317 39.521748 27.00514
64.632004 39.490463 27.015038
67.671806 39.612972 27.012444
-30.637711 -39.236725 27.094637
-29.704149 -39.328728 27.025726
-24.79566 -38.646034 27.116634
-31.591232 -38.527256 27.133072
-24.840515 -38.602634 27.049498
-24.81131 -38.599686 27.107136
-31.609493 -38.470058 27.127369
-25.908545 -35.547897 27.106531
-25.959839 -35.52346 27.118938
-30.25951 -34.856606 27.132956
-30.24317 -34.851089 27.136616
-30.269485 -34.84058 27.099426
-30.226732 -34.836807 27.1262
-27.965467 -34.687107 27.073286
-27.928574 -34.700943 27.065771
14.103383 -26.640125 27.054501
40.802044 -26.513033 27.062502
40.836105 -26.4977 27.048
12.408864 -26.251173 27.087929
12.447319 -26.259438 27.091974
9.0049381 -25.03265 27.029747
7.2256298 -24.220587 27.119396
7.2556 -24.233427 27.125963
47.485714 -22.938576 27.113436
47.509666 -22.91501 27.128946
48.208378 -22.458288 27.13373
3.6440313 -22.091471 27.029839
3.594337 -22.056274 27.026085
50.232849 -21.083223 27.049662
50.266541 -21.05983 27.055727
2.1315475 -20.829416 27.110445
2.1103382 -20.808691 27.108231
-0.34653404 -18.673223 27.062592
-0.30996904 -18.706774 27.056881
53.753166 -17.974567 27.127022
54.034 -17.78458 27.058977
54.065659 -17.750711 27.062378
-2.7808673 -15.556248 27.123903
-2.7511353 -15.587239 27.113724
60.909946 -9.9308615 27.082153
60.933891 -9.8819313 27.128044
60.967228 -9.8455925 27.083691
61.869205 -9.0955601 27.138107
61.897091 -9.0538311 27.115294
62.209412 -8.8869448 27.132536
-11.222026 -1.895553 27.132355
25.627428 -0.25176772 27.039715
25.607763 -0.2284002 27.026228
-11.439923 0.29611871 27.044832
31.706345 0.26858807 27.087902
31.745615 0.27830103 27.097502
21.917774 1.9014336 27.118963
71.49659 2.0494354 27.109035
71.539749 2.0506537 27.139254
68.629234 2.3889229 27.055214
68.646912 2.4356089 27.048182
68.669151 2.4971526 27.046824
70.050652 3.0258303 27.085136
70.109993 3.4415972 27.137871
70.135429 3.5036623 27.088127
70.152672 3.5362043 27.047911
70.14653 3.5771999 27.098297
70.165359 3.5910816 27.039528
-9.6667891 4.8420944 27.126642
-9.6399736 4.8749037 27.122646
69.523201 5.0391254 27.091799
69.512306 5.0881724 27.114925
15.858571 5.5909333 27.089268
15.8992 5.5884447 27.067028
69.915985 5.6190562 27.034897
69.920349 5.6091127 27.032887
70.656555 5.6813259 27.062948
-7.4935212 6.5831084 27.076799
-7.464776 6.6056886 27.091125
35.813179 7.0797591 27.132563
70.122818 7.2440987 27.116882
70.182861 7.2314706 27.049828
70.135796 7.2562613 27.106491
70.170212 7.2663164 27.072805
11.366587 7.9786086 27.138765
11.425334 7.9480743 27.130606
-1.2658297 8.9606638 27.027035
-1.2507646 8.9560127 27.033989
3.4286156 8.957428 27.09396
3.4235654 8.9957237 27.063225
3.4676559 8.9968176 27.062391
38.284748 10.065085 27.030613
70.94912 10.653617 27.113613
70.970673 10.672302 27.102156
70.939445 10.6973 27.137154
70.965332 10.697172 27.115414
39.91346 12.184346 27.108868
39.9603 12.241465 27.118248
42.732449 14.933408 27.039177
71.943893 14.926717 27.036846
42.759712 14.953393 27.03927
71.928337 14.964269 27.044882
71.81768 15.687829 27.131479
71.870064 15.943492 27.102478
71.899345 15.939461 27.084335
44.786995 16.843048 27.125957
49.165329 20.334209 27.082478
49.202831 20.362284 27.09211
69.454102 22.076902 27.107584
69.42881 22.113462 27.117151
69.460419 22.082664 27.102739
52.053337 22.990913 27.124676
52.064701 23.031309 27.092518
60.564499 31.846788 27.130577
60.610283 31.845142 27.122585
68.724403 32.190956 27.06683
68.724884 32.223515 27.076218
66.90905 32.408886 27.11393
66.950165 32.405869 27.121147
77.957375 33.428593 27.047308
77.996071 33.437214 27.040524
70.090408 33.651646 27.086189
78.57901 34.366646 27.064413
69.069679 34.402813 27.136511
78.577003 34.402283 27.069778
78.761879 34.497635 27.036343
78.806694 34.488937 27.026585
78.769173 34.516743 27.035625
78.797447 34.533123 27.030396
78.831108 35.519039 27.03801
78.816681 35.562519 27.034048
77.944427 35.689072 27.128242
77.979218 35.702724 27.116461
73.926231 36.339886 27.062029
73.917603 36.343517 27.03837
66.112404 37.248314 27.069479
66.126595 37.229469 27.083775
66.081665 37.285007 27.049397
65.772049 37.576721 27.130955
65.817291 37.536957 27.092865
68.722298 38.716022 27.033857
64.598534 39.515385 27.049908
67.69352 39.617027 27.036783
66.838249 40.475075 27.080912
63.92194 40.585732 27.09358
66.796371 40.512333 27.080324
66.822861 40.500755 27.09342
63.907547 40.61898 27.075586
-30.641098 -39.237762 27.142273
-31.58555 -38.539661 27.160013
-24.798677 -38.55854 27.149849
-31.612741 -38.454849 27.149836
-25.17252 -36.827812 27.252987
-31.745024 -36.685467 27.184805
-25.19256 -36.746311 27.249369
-25.18399 -36.788494 27.246311
-31.741829 -36.674023 27.190258
-31.72665 -36.631416 27.221567
-25.948153 -35.547974 27.178061
-25.974916 -35.528763 27.163412
-30.252241 -34.865704 27.153236
-30.234167 -34.855305 27.150335
22.590664 -28.578985 27.249107
18.127062 -28.071712 27.227057
26.996225 -28.115204 27.230598
27.031725 -28.106022 27.223122
16.505472 -27.668743 27.200211
30.735773 -27.636227 27.239603
14.420653 -26.691744 27.20883
42.653053 -25.466522 27.216625
42.690834 -25.444632 27.219305
7.2445393 -24.224405 27.145308
7.2482476 -24.225603 27.148102
47.464222 -22.945766 27.155865
47.512638 -22.90761 27.148947
48.183701 -22.458942 27.180622
48.208862 -22.442545 27.179892
48.238686 -22.420572 27.186625
2.1359451 -20.819817 27.15155
2.1300807 -20.812565 27.15539
53.622955 -18.057945 27.250807
53.63744 -18.046682 27.2418
53.74596 -17.957918 27.181288
53.782532 -17.925934 27.192892
-2.7825577 -15.539409 27.152924
-2.7560773 -15.55414 27.16814
60.864544 -9.9190989 27.181269
60.903412 -9.8565207 27.195711
60.959026 -9.8398724 27.144531
61.871479 -9.1103077 27.151699
-8.2237778 -8.8553543 27.19471
62.206699 -8.9269438 27.170994
62.231853 -8.9052029 27.177195
-8.2415857 -8.8294697 27.19276
-10.93845 -3.3899624 27.240091
-10.923353 -3.4159646 27.248734
-11.196465 -1.8849595 27.155993
27.311495 -0.86124909 27.174593
24.816374 -0.14457031 27.226603
24.842085 -0.13096356 27.202833
24.776426 -0.10144062 27.197586
33.894363 1.0011683 27.184023
33.930599 1.0093083 27.152681
33.865631 1.0402269 27.238638
21.885271 1.8966278 27.149431
71.489853 2.0359261 27.149311
71.532784 2.0470726 27.145809
70.009186 2.979063 27.188557
70.014717 3.0174415 27.193029
70.040016 3.076056 27.147057
-10.582546 3.4262705 27.231796
-10.573049 3.423882 27.241241
70.101768 3.4391327 27.166012
19.527319 3.4765549 27.24964
70.113594 3.4745331 27.147398
70.193535 3.9839852 27.22588
18.584402 4.339798 27.188896
18.555496 4.3853669 27.185694
-9.6263514 4.8278079 27.170809
-9.6345339 4.8439188 27.151468
15.233316 5.6729074 27.198427
35.800888 7.0883756 27.163963
-6.4733658 7.6299996 27.248562
11.373487 7.9258828 27.169907
11.39865 7.926579 27.15741
11.365856 7.9705858 27.144356
11.399755 7.9508376 27.141041
-0.82127923 8.79319 27.231144
-0.78013527 8.7907162 27.228531
-0.53941286 8.824192 27.213936
2.2542758 8.7628841 27.247295
70.935509 10.697858 27.140648
39.941761 12.252666 27.155268
71.402443 12.692738 27.247269
71.417709 12.689499 27.237236
71.607895 13.336189 27.17293
71.585724 13.370709 27.196911
71.781021 15.684956 27.150885
44.792488 16.856609 27.172924
46.316402 18.148096 27.243309
46.351223 18.171307 27.24044
69.096046 22.646418 27.249634
69.118195 22.646961 27.235645
69.098404 22.682631 27.247683
69.125107 22.681211 27.230852
53.307571 25.337517 27.253252
68.635498 26.215948 27.172548
68.595406 26.244446 27.177055
68.024879 26.993433 27.238016
68.13269 27.104425 27.176462
68.181259 27.176397 27.224247
68.218811 27.216978 27.204844
69.546516 28.737976 27.20948
69.567986 28.75914 27.202414
69.578064 28.768944 27.198311
70.7621 30.876904 27.20063
69.186684 31.489164 27.242348
69.176552 31.51881 27.232538
60.579014 31.8335 27.163712
60.608448 31.836004 27.148634
56.579544 31.917835 27.235598
65.200958 32.207458 27.236397
65.241386 32.21909 27.222139
65.860153 32.312584 27.248539
65.758369 32.341125 27.16461
65.834068 32.34005 27.191103
66.924782 32.367474 27.162085
66.952339 32.364185 27.168348
70.138123 33.644196 27.144516
68.991714 34.469875 27.166775
69.028854 34.446747 27.185787
78.468925 34.693798 27.170612
78.473007 34.748173 27.180885
77.948586 35.671844 27.143471
65.817963 37.516266 27.153896
63.410854 41.261494 27.200283
63.390877 41.298462 27.202078
64.511917 42.826347 27.193449
64.545448 42.823723 27.208652
63.534851 43.521431 27.240917
-25.163223 -36.826454 27.279228
-25.188961 -36.736153 27.265572
-25.16185 -36.754932 27.327833
-31.712215 -36.627964 27.268421
22.603897 -28.575302 27.280558
19.349386 -28.292173 27.321352
19.312 -28.285778 27.344477
19.328127 -28.288862 27.324636
18.13759 -28.069332 27.261778
26.991043 -28.117664 27.270378
18.092361 -28.059273 27.270916
30.70421 -27.63369 27.295763
30.741928 -27.634502 27.287401
32.832634 -27.402861 27.349516
42.682667 -25.444426 27.266941
8.4690142 -24.698723 27.363785
44.616287 -24.432739 27.362419
44.653839 -24.405964 27.366665
44.696487 -24.379513 27.35882
53.634911 -18.014477 27.312113
-1.624159 -17.496561 27.338581
-1.6015745 -17.514599 27.341406
-6.8801498 -10.937556 27.359421
-6.8956885 -10.907834 27.356903
62.337093 -8.8075476 27.288082
62.378517 -8.6777325 27.325144
62.396996 -8.6142406 27.354141
63.742344 -5.8958607 27.316771
63.765522 -5.8486118 27.324459
64.209419 -4.8444262 27.308403
64.226601 -4.7955112 27.320824
-10.912021 -3.3873792 27.264973
65.914139 -1.2793531 27.358025
65.923775 -1.2579435 27.362564
25.357233 -0.47033694 27.363531
24.805702 -0.17394146 27.260803
32.01445 0.54138553 27.317333
31.987926 0.57938212 27.366056
72.185059 2.8493526 27.332052
72.166733 2.8766227 27.323639
-10.548581 3.4005699 27.269485
19.521257 3.4375901 27.285101
19.557417 3.4124212 27.280327
19.50873 3.460124 27.275665
70.175255 3.9643562 27.278761
70.18692 4.0337162 27.28812
70.689384 5.6467204 27.369097
71.495621 5.976613 27.359055
71.502068 5.9933796 27.339615
71.533676 6.000217 27.333891
-6.5819845 7.3194437 27.35367
-6.4902759 7.5819426 27.268183
-6.4624434 7.602437 27.268398
44.493881 8.475975 27.347322
44.520611 8.493453 27.328575
44.527344 8.5162649 27.362762
-0.38463506 8.6646204 27.342272
-0.32819855 8.6644373 27.33761
2.2315028 8.7252789 27.292295
-0.8197695 8.7617407 27.255672
2.2489805 8.747056 27.26619
5.6818953 8.900116 27.353809
71.262749 12.521232 27.317265
71.303116 12.495148 27.284418
71.261635 12.559627 27.323984
71.375443 12.686771 27.264322
71.430733 14.575601 27.365818
71.482399 15.513298 27.361734
71.491066 15.553325 27.357409
45.444237 17.483562 27.369356
46.330784 18.151915 27.277637
46.347122 18.164326 27.266928
51.61034 22.156311 27.311764
51.645844 22.16148 27.333195
51.625328 22.19739 27.289454
69.071358 22.706711 27.264441
53.237217 25.353907 27.322552
53.278099 25.362873 27.293007
68.010109 26.989876 27.287119
68.051651 27.035944 27.276937
68.17627 27.179979 27.260439
56.667274 29.991888 27.352993
56.717438 29.921461 27.357004
56.564255 31.923916 27.291975
56.58749 31.955961 27.284199
56.604145 31.987381 27.294575
65.239784 32.218956 27.262272
65.854012 32.305935 27.258392
62.198322 32.332821 27.333675
62.232174 32.333538 27.342213
72.317329 33.166088 27.332037
72.350006 33.153755 27.316641
77.380516 33.615139 27.34383
77.415543 33.617538 27.336348
69.015251 34.479549 27.271206
78.191811 34.932293 27.279997
78.219215 34.935627 27.273571
78.187035 34.967793 27.282799
78.208717 34.980717 27.278193
75.646492 35.975574 27.344347
73.569344 36.396503 27.325623
73.6063 36.388012 27.312958
63.531273 43.557358 27.26317
63.531799 43.600285 27.292065
-31.695572 -38.215836 27.459114
-31.705515 -38.160503 27.453503
-25.147324 -36.736225 27.379236
-28.292946 -34.801636 27.479355
-28.253078 -34.795265 27.454268
32.824707 -27.404528 27.376389
35.042416 -27.210693 27.423986
35.081715 -27.196838 27.449722
37.12867 -27.047022 27.48035
37.148811 -27.046375 27.460081
40.08297 -26.699455 27.48337
10.913778 -25.728413 27.461651
10.932039 -25.734104 27.47945
8.4736395 -24.692778 27.403126
44.654526 -24.392946 27.406839
44.683014 -24.377556 27.394302
5.7962661 -23.516424 27.411816
1.4844048 -20.129932 27.46162
1.4959196 -20.14159 27.458265
1.4582978 -20.109091 27.457991
52.860802 -18.797201 27.476187
-0.51130235 -18.358999 27.470682
53.641968 -17.996843 27.384476
-1.6162832 -17.485943 27.383963
-1.6094574 -17.49136 27.384911
-4.8513012 -13.250298 27.454039
-4.8653035 -13.216725 27.466141
-6.8644609 -10.947122 27.383795
-6.8835421 -10.895944 27.396374
-7.4905334 -9.8496952 27.434078
-7.4603367 -9.8672972 27.460638
62.404694 -8.5826559 27.377638
-8.5384703 -8.1196728 27.478292
-9.3944435 -6.7341752 27.48428
63.698528 -5.8751988 27.417875
63.715706 -5.8820539 27.379543
63.704082 -5.8601761 27.423607
63.726379 -5.8568792 27.386677
65.545494 -1.852751 27.423122
65.549866 -1.8239025 27.434958
65.562164 -1.7621969 27.454826
65.575478 -1.7140443 27.463486
65.899422 -1.2744083 27.389204
65.923225 -1.2260828 27.395777
27.02236 -1.0580783 27.480013
27.04027 -1.0606682 27.479206
25.365442 -0.52151674 27.413748
30.229876 0.089237884 27.474335
30.267588 0.10025156 27.45451
30.255886 0.11798794 27.481018
33.858425 1.9284068 27.419374
33.857491 1.9750699 27.415766
72.169647 2.849787 27.401056
72.141884 2.8750296 27.442604
18.151258 4.1864343 27.460409
18.175116 4.1941466 27.452503
70.695976 5.6308513 27.467918
70.703751 5.6447349 27.434229
70.737968 5.6642747 27.477379
71.499176 5.9627523 27.375803
34.886375 6.3960943 27.438238
12.759968 6.9983206 27.483915
12.772812 7.0047841 27.47097
-6.5705543 7.283865 27.380791
-6.5477405 7.3111649 27.380592
-6.2699761 7.4594555 27.444031
-6.2617931 7.4933815 27.430946
10.116026 8.2768974 27.441517
10.145919 8.2699671 27.426291
10.104393 8.2957382 27.425919
10.137949 8.2963972 27.397577
44.515404 8.5087337 27.371727
44.521549 8.5174294 27.3773
-0.38209182 8.6332855 27.373886
6.1709237 8.7326746 27.482056
6.2142 8.7380819 27.468201
6.1634073 8.745676 27.466551
6.2101626 8.7421007 27.463684
7.6191225 8.8403616 27.404573
5.621635 8.8783941 27.379265
5.6735249 8.8785152 27.380974
7.64326 8.8777533 27.428802
38.78664 11.000314 27.426847
39.142651 11.467874 27.448267
70.808487 11.556914 27.441111
70.846306 11.529538 27.407522
71.394081 14.567386 27.395126
71.42308 14.574865 27.371948
71.363281 14.610436 27.419933
71.374519 15.228707 27.477211
71.470375 15.522444 27.371273
71.46508 15.572453 27.377979
45.411049 17.449026 27.396942
45.435612 17.466656 27.409519
70.713211 17.522615 27.484612
70.586342 17.699478 27.475536
70.611206 17.709726 27.457634
70.575699 17.737171 27.465927
70.620857 17.72702 27.445389
70.550507 17.857138 27.424112
69.573341 19.433365 27.445305
69.587311 19.42746 27.440475
69.558296 19.462631 27.440613
69.584152 19.448587 27.433018
69.224594 20.905138 27.428574
69.258553 20.887693 27.413296
68.989182 21.344675 27.457327
69.024513 21.347422 27.439627
69.027878 21.395607 27.432283
